# .PCD v0.7 - Point Cloud Data file format
VERSION 0.7
FIELDS x y z rgb
SIZE 4 4 4 4
TYPE F F F F
COUNT 1 1 1 1
WIDTH 1305
HEIGHT 1
VIEWPOINT 0 0 0 1 0 0 0
POINTS 1305
DATA ascii
-0.14374374 -2.420068 -0.96680331 0
-0.14193091 -2.420917 -0.96494359 0
-0.1455882 -2.4373031 -0.97737277 0
-0.14277396 -2.3998535 -0.96354502 0
-0.14156964 -2.410799 -0.96333063 0
-0.14393584 -2.4115829 -0.96101487 0
-0.14292358 -2.4101636 -0.96471959 0
-0.14350826 -2.4005492 -0.96170086 0
-0.14303826 -2.4120977 -0.95985669 0
-0.14252311 -2.4290252 -0.97155738 0
-0.14289655 -2.390317 -0.96039873 0
-0.14231271 -2.3921003 -0.95603526 0
-0.1412769 -2.4117403 -0.96101487 0
-0.1438313 -2.4098315 -0.96541399 0
-0.14288899 -2.3998466 -0.96354502 0
-0.1419764 -2.4197078 -0.9679653 0
-0.14437614 -2.4209116 -0.96459484 0
-0.14331131 -2.410835 -0.96298331 0
-0.14198333 -2.4178438 -0.97261119 0
-0.14446165 -2.4184434 -0.97075325 0
-0.14258428 -2.4024932 -0.9569726 0
-0.14188483 -2.4201312 -0.96691948 0
-0.14610247 -2.4459126 -0.98273361 0
-0.14362228 -2.4102147 -0.96448815 0
-0.14073889 -2.4025559 -0.95708793 0
-0.14363052 -2.4103532 -0.96414089 0
-0.14489877 -2.4277165 -0.97447264 0
-0.13977911 -2.3822591 -0.95404583 0
-0.14346795 -2.4115186 -0.96124649 0
-0.14435962 -2.4206345 -0.96529233 0
-0.14339741 -2.4459312 -0.98308599 0
-0.14297655 -2.3993783 -0.96469736 0
-0.14299667 -2.4390957 -0.97327483 0
-0.1433142 -2.4089341 -0.96772802 0
-0.14473239 -2.4190793 -0.96912712 0
-0.14248286 -2.4303317 -0.96829063 0
-0.14460313 -2.4384866 -0.97456306 0
-0.14358751 -2.3999436 -0.96319932 0
-0.1436926 -2.4469509 -0.98050153 0
-0.14299464 -2.4113622 -0.96170968 0
-0.14337404 -2.4021702 -0.95766473 0
-0.14255749 -2.4276211 -0.97505552 0
-0.14426693 -2.4269109 -0.97657079 0
-0.14334941 -2.4017577 -0.95870286 0
-0.14138173 -2.4115496 -0.96147811 0
-0.1455414 -2.4463706 -0.9816764 0
-0.14459424 -2.4187152 -0.97005641 0
-0.14138173 -2.4115496 -0.96147811 0
-0.14309657 -2.4111249 -0.96228862 0
-0.14458591 -2.418576 -0.97040486 0
-0.14093328 -2.3999622 -0.96354502 0
-0.14430276 -2.4294796 -0.97015756 0
-0.14574134 -2.439867 -0.97093195 0
-0.14400969 -2.4563749 -0.98386168 0
-0.14151648 -2.3806417 -0.95781958 0
-0.14311811 -2.3920982 -0.95592034 0
-0.14151351 -2.4118187 -0.96078324 0
-0.14358751 -2.3999436 -0.96319932 0
-0.14333922 -2.4389355 -0.9736262 0
-0.14550057 -2.4576077 -0.98055816 0
-0.14460811 -2.4189472 -0.96947563 0
-0.14213477 -2.4184415 -0.9711017 0
-0.1438515 -2.4199224 -0.96715194 0
-0.14484867 -2.4307959 -0.96677327 0
-0.14319219 -2.4384294 -0.97491431 0
-0.14573111 -2.4456043 -0.98355573 0
-0.14405869 -2.4194918 -0.9681977 0
-0.14138982 -2.4116876 -0.96113068 0
-0.14493769 -2.4283688 -0.97284025 0
-0.14410001 -2.418232 -0.97133392 0
-0.14035255 -2.3920324 -0.95649469 0
-0.14260194 -2.3930917 -0.95350754 0
-0.14352322 -2.4104984 -0.96379364 0
-0.14175153 -2.4178574 -0.97261119 0
-0.14369373 -2.4094687 -0.96633971 0
-0.14459635 -2.4304857 -0.96759033 0
-0.14339836 -2.4479558 -0.97803354 0
-0.14365233 -2.4087746 -0.96807504 0
-0.14342339 -2.401062 -0.96043265 0
-0.14182568 -2.4211085 -0.96447855 0
-0.14382122 -2.4194129 -0.96843004 0
-0.14468795 -2.4183366 -0.97098553 0
-0.14366888 -2.4207683 -0.96505982 0
-0.14444532 -2.420119 -0.96657085 0
-0.14078303 -2.399369 -0.96504301 0
-0.14496225 -2.4366357 -0.97912812 0
-0.14337951 -2.402262 -0.95743406 0
-0.13961747 -2.3834121 -0.95118529 0
-0.14418943 -2.4275715 -0.97493893 0
-0.14240281 -2.3820579 -0.95416021 0
-0.14205508 -2.4210489 -0.96459484 0
-0.14251079 -2.4012547 -0.96008676 0
-0.14401534 -2.4090316 -0.967381 0
-0.14085877 -2.40066 -0.96181613 0
-0.14311023 -2.4113553 -0.96170968 0
-0.14459169 -2.4206207 -0.96529233 0
-0.14123286 -2.4090106 -0.96784371 0
-0.14317393 -2.408524 -0.96876907 0
-0.14357968 -2.4017439 -0.95870286 0
-0.14192279 -2.4207785 -0.96529233 0
-0.14254935 -2.3999593 -0.96331453 0
-0.14238644 -2.3817837 -0.9548465 0
-0.14193362 -2.4209633 -0.96482736 0
-0.14374924 -2.4201605 -0.96657085 0
-0.14315046 -2.3907166 -0.95936561 0
-0.14247121 -2.4281409 -0.97377312 0
-0.14475322 -2.4390388 -0.9731577 0
-0.14138365 -2.4096055 -0.96633971 0
-0.14391515 -2.4268849 -0.97668731 0
-0.14312358 -2.3921895 -0.95569062 0
-0.14150542 -2.4116807 -0.96113068 0
-0.1453864 -2.4556792 -0.9853949 0
-0.14636509 -2.4463687 -0.98155892 0
-0.14281057 -2.4299402 -0.96922415 0
-0.14208023 -2.401787 -0.9588182 0
-0.14526184 -2.4279287 -0.97388971 0
-0.14149101 -2.4094598 -0.96668684 0
-0.14340393 -2.4202275 -0.96645463 0
-0.14362898 -2.4025688 -0.95662647 0
-0.14315106 -2.4377289 -0.97667044 0
-0.1428083 -2.4082198 -0.96957862 0
-0.14421099 -2.4103649 -0.96402514 0
-0.14096117 -2.402405 -0.95743406 0
-0.14331883 -2.4187911 -0.97005641 0
-0.1438093 -2.3997917 -0.96354502 0
-0.14279421 -2.429662 -0.96992421 0
-0.14241396 -2.4113503 -0.96182549 0
-0.14496154 -2.4190192 -0.96924329 0
-0.14127298 -2.3998497 -0.96377552 0
-0.1440049 -2.438288 -0.9751485 0
-0.14376332 -2.4028821 -0.95581877 0
-0.14246218 -2.4200509 -0.96703571 0
-0.14521015 -2.4192834 -0.96854627 0
-0.142097 -2.4118767 -0.96055162 0
-0.14108622 -2.4006004 -0.96193141 0
-0.14546387 -2.4274018 -0.9751721 0
-0.14206666 -2.4015574 -0.95939481 0
-0.14140832 -2.4021487 -0.95801079 0
-0.14573018 -2.437717 -0.97631925 0
-0.14065489 -2.3815656 -0.95564711 0
-0.14169689 -2.4011645 -0.96043265 0
-0.14430739 -2.4119761 -0.9599725 0
-0.14356208 -2.4387352 -0.97409463 0
-0.14082904 -2.3806365 -0.9579339 0
-0.14360404 -2.4002202 -0.96250778 0
-0.14216843 -2.4209957 -0.96471107 0
-0.14290433 -2.4196532 -0.9679653 0
-0.1445844 -2.4088583 -0.96772802 0
-0.1431053 -2.4289911 -0.97155738 0
-0.14306264 -2.4302511 -0.96840727 0
-0.14422479 -2.4105954 -0.96344638 0
-0.14204395 -2.4090092 -0.96772802 0
-0.14339136 -2.4278996 -0.97423947 0
-0.14373867 -2.4024704 -0.9568572 0
-0.14075838 -2.3930635 -0.9538523 0
-0.14446931 -2.4461513 -0.98238122 0
-0.1454974 -2.4279613 -0.97377312 0
-0.14257546 -2.4199977 -0.96715194 0
-0.14435624 -2.4089184 -0.96761233 0
-0.1414423 -2.4007642 -0.96147031 0
-0.14273508 -2.4207308 -0.96529233 0
-0.14590566 -2.4386897 -0.97386044 0
-0.14247708 -2.418328 -0.97133392 0
-0.14250037 -2.4088895 -0.9679594 0
-0.14494257 -2.420646 -0.96517611 0
-0.14217657 -2.4211342 -0.96436232 0
-0.14230497 -2.4095047 -0.9664554 0
-0.14449669 -2.409328 -0.96657115 0
-0.14305171 -2.4300656 -0.9688741 0
-0.14259726 -2.420368 -0.96622223 0
-0.14437011 -2.4091499 -0.96703392 0
-0.1409892 -2.3911214 -0.9586767 0
-0.14217734 -2.4112718 -0.96205705 0
-0.14471601 -2.4207523 -0.96494359 0
-0.14086917 -2.3910363 -0.95890635 0
-0.14380158 -2.4269385 -0.97657079 0
-0.14399643 -2.4106553 -0.96333063 0
-0.1409746 -2.4026341 -0.9568572 0
-0.14356174 -2.418963 -0.9695918 0
-0.14358199 -2.3998516 -0.96342981 0
-0.14039011 -2.3926728 -0.95488644 0
-0.14355284 -2.4207752 -0.96505982 0
-0.14189199 -2.4182692 -0.9715662 0
-0.14416149 -2.4290686 -0.97120744 0
-0.14586107 -2.4399064 -0.97081476 0
-0.14415781 -2.4568856 -0.98256409 0
-0.14305848 -2.408531 -0.96876907 0
-0.14420824 -2.4103186 -0.96414089 0
-0.14259936 -2.4303248 -0.96829063 0
-0.14443368 -2.4376063 -0.97678751 0
-0.14468518 -2.4182901 -0.9711017 0
-0.14320862 -2.4387093 -0.97421175 0
-0.14496535 -2.4485674 -0.97627008 0
-0.14351925 -2.4007332 -0.96123976 0
-0.14146383 -2.4089971 -0.96784371 0
-0.14346504 -2.4192946 -0.96877861 0
-0.1424273 -2.3843861 -0.94832343 0
-0.1409262 -2.401809 -0.95893353 0
-0.14405644 -2.4272983 -0.97563833 0
-0.14308798 -2.3915946 -0.95718384 0
-0.14097191 -2.4025884 -0.9569726 0
-0.14401747 -2.4286103 -0.97237378 0
-0.14301662 -2.3904018 -0.9601692 0
-0.14111327 -2.4010606 -0.96077853 0
-0.1430001 -2.4114542 -0.96147811 0
-0.14466074 -2.4198277 -0.96726811 0
-0.14133476 -2.4087722 -0.96842206 0
-0.14307988 -2.3933835 -0.95270306 0
-0.14204153 -2.4208179 -0.96517611 0
-0.14462574 -2.4368908 -0.97854304 0
-0.14307703 -2.3914113 -0.95764321 0
-0.14205779 -2.4210949 -0.96447855 0
-0.14446412 -2.4381204 -0.97549975 0
-0.14578827 -2.4367275 -0.97877711 0
-0.14262043 -2.4286928 -0.97237378 0
-0.14386438 -2.4299712 -0.96899074 0
-0.14346179 -2.4017048 -0.9588182 0
-0.14091702 -2.3996854 -0.96423644 0
-0.14362252 -2.4180269 -0.97191453 0
-0.14404321 -2.4114382 -0.9613623 0
-0.14138712 -2.4116416 -0.96124649 0
-0.14585166 -2.4555569 -0.98563069 0
-0.14471574 -2.4188011 -0.96982408 0
-0.14095847 -2.4023592 -0.95754939 0
-0.14394787 -2.4294074 -0.97039086 0
-0.14580227 -2.4369617 -0.97819197 0
-0.14204611 -2.4189126 -0.96994025 0
-0.1413393 -2.3834476 -0.95084196 0
-0.14405419 -2.411622 -0.96089906 0
-0.14257939 -2.4279943 -0.97412288 0
-0.14262052 -2.3992143 -0.96515822 0
-0.14311095 -2.4016337 -0.95904887 0
-0.14455797 -2.4278772 -0.97412288 0
-0.14367995 -2.4092374 -0.96691823 0
-0.14245839 -2.4299145 -0.9693408 0
-0.14534335 -2.4390972 -0.97292346 0
-0.14291096 -2.4002154 -0.962623 0
-0.14080741 -2.3997846 -0.96400601 0
-0.14555217 -2.438664 -0.97397757 0
-0.14350623 -2.4121621 -0.95962501 0
-0.14129794 -2.4101205 -0.96506679 0
-0.14475179 -2.4272101 -0.97575492 0
-0.1435397 -2.4107752 -0.96309906 0
-0.1419255 -2.4208248 -0.96517611 0
-0.14491268 -2.4279497 -0.97388971 0
-0.14411385 -2.4184642 -0.97075325 0
-0.14189026 -2.4202237 -0.96668708 0
-0.14436789 -2.420773 -0.96494359 0
-0.14392616 -2.4192207 -0.96889478 0
-0.14023946 -2.3901052 -0.961317 0
-0.14119485 -2.3637536 -0.94616729 0
-0.14315662 -2.4121368 -0.95974088 0
-0.14187127 -2.4198999 -0.96750051 0
-0.14289655 -2.390317 -0.96039873 0
-0.14286703 -2.401418 -0.95962548 0
-0.14193632 -2.4210093 -0.96471107 0
-0.14437896 -2.4190075 -0.96935946 0
-0.14372839 -2.4475605 -0.97897381 0
-0.14559387 -2.4393625 -0.97222066 0
-0.14262863 -2.4012938 -0.95997143 0
-0.14132115 -2.4085402 -0.9690004 0
-0.14569944 -2.4372027 -0.97760683 0
-0.1432586 -2.4119003 -0.96032 0
-0.14253947 -2.4293041 -0.9708575 0
-0.14554626 -2.4366009 -0.97912812 0
-0.14451081 -2.4290476 -0.97120744 0
-0.14248286 -2.4303317 -0.96829063 0
-0.14428236 -2.4193389 -0.96854627 0
-0.14333072 -2.4092119 -0.96703392 0
-0.14099276 -2.4009752 -0.96100914 0
-0.1438175 -2.4115441 -0.96113068 0
-0.14375474 -2.420253 -0.9663384 0
-0.1418647 -2.417804 -0.9727273 0
-0.1419639 -2.4096177 -0.96622401 0
-0.14194617 -2.4112854 -0.96205705 0
-0.14578728 -2.4000423 -0.962623 0
-0.14348316 -2.3715024 -0.95340937 0
-0.13867429 -2.3829644 -0.95244408 0
-0.14299515 -2.4310913 -0.96630633 0
-0.14493474 -2.4108303 -0.96275175 0
-0.14172496 -2.3996842 -0.96412122 0
-0.14215387 -2.4187667 -0.97028869 0
-0.14223607 -2.4024677 -0.95708793 0
-0.14188108 -2.4180832 -0.97203064 0
-0.14582187 -2.4372892 -0.97737277 0
-0.14325587 -2.4118543 -0.96043581 0
-0.14065826 -2.4011796 -0.96054798 0
-0.14331885 -2.3993115 -0.96481258 0
-0.14440387 -2.4194248 -0.96831387 0
-0.14114782 -2.4115171 -0.96159387 0
-0.14393996 -2.4194524 -0.96831387 0
-0.1455854 -2.4372563 -0.97748977 0
-0.14197096 -2.419615 -0.9681977 0
-0.14434133 -2.4301291 -0.96852398 0
-0.14357692 -2.4016981 -0.9588182 0
-0.14325809 -2.4455614 -0.98402548 0
-0.14240146 -2.3994126 -0.96469736 0
-0.14326836 -2.3926854 -0.95442683 0
-0.1429912 -2.4390025 -0.97350907 0
-0.14262134 -2.4089751 -0.96772802 0
-0.14362608 -2.4005885 -0.96158558 0
-0.14283781 -2.4304037 -0.96805722 0
-0.14382042 -2.4292285 -0.9708575 0
-0.14303038 -2.3906317 -0.9595952 0
-0.14218387 -2.419277 -0.96901095 0
-0.14453042 -2.439239 -0.97268921 0
-0.14359064 -2.4019272 -0.95824152 0
-0.14471193 -2.4363685 -0.97983015 0
-0.14414504 -2.4112012 -0.9619413 0
-0.14041424 -2.3930838 -0.9538523 0
-0.14188437 -2.3906999 -0.9595952 0
-0.14471574 -2.4188011 -0.96982408 0
-0.14161561 -2.411582 -0.9613623 0
-0.1417502 -2.3923173 -0.95557576 0
-0.14580227 -2.4369617 -0.97819197 0
-0.1436733 -2.4466224 -0.98132396 0
-0.14165446 -2.3926439 -0.95477152 0
-0.14318097 -2.3931487 -0.95327771 0
-0.14379334 -2.4466624 -0.98120648 0
-0.14160614 -2.3898861 -0.96166128 0
-0.14312358 -2.3921895 -0.95569062 0
-0.14271042 -2.4302254 -0.96852398 0
-0.14499845 -2.4372444 -0.97760683 0
-0.14380468 -2.4191346 -0.96912712 0
-0.14140059 -2.4118714 -0.96066743 0
-0.14456961 -2.4202509 -0.96622223 0
-0.14209446 -2.3903646 -0.96039873 0
-0.14101546 -2.4092555 -0.96726531 0
-0.1455633 -2.4388504 -0.97350907 0
-0.14425735 -2.4208722 -0.96471107 0
-0.14290638 -2.4375558 -0.97713864 0
-0.14408061 -2.4179065 -0.97214675 0
-0.14073353 -2.4024644 -0.95731866 0
-0.1426781 -2.400183 -0.96273828 0
-0.14336842 -2.4001417 -0.96273828 0
-0.14268318 -2.4297616 -0.96969086 0
-0.143879 -2.4203849 -0.96598977 0
-0.1455854 -2.4372563 -0.97748977 0
-0.14244112 -2.4276278 -0.97505552 0
-0.143658 -2.4108143 -0.96298331 0
-0.14207898 -2.3843157 -0.94855243 0
-0.14226843 -2.4286668 -0.97249043 0
-0.14396194 -2.4178667 -0.97226286 0
-0.14455026 -2.4199271 -0.96703571 0
-0.1430185 -2.4394681 -0.97233778 0
-0.14433351 -2.4280307 -0.97377312 0
-0.14413913 -2.4091637 -0.96703392 0
-0.14081106 -2.4018157 -0.95893353 0
-0.14397538 -2.4298716 -0.96922415 0
-0.14362058 -2.4004965 -0.96181613 0
-0.1414611 -2.4089506 -0.9679594 0
-0.14458376 -2.4381599 -0.97538269 0
-0.1435384 -2.4029875 -0.95558798 0
-0.14199542 -2.420032 -0.96715194 0
-0.14295402 -2.4087231 -0.96830642 0
-0.14531754 -2.4288597 -0.97155738 0
-0.14314909 -2.4396939 -0.97175205 0
-0.14601907 -2.4366667 -0.97889411 0
-0.14156424 -2.4107068 -0.96356213 0
-0.14198948 -2.4022067 -0.95778012 0
-0.14353025 -2.4009173 -0.96077853 0
-0.14277925 -2.4274206 -0.9755218 0
-0.14191978 -2.3912964 -0.95810258 0
-0.14353295 -2.4028959 -0.95581877 0
-0.14353764 -2.448323 -0.9770931 0
-0.14527893 -2.4459145 -0.98285109 0
-0.14429891 -2.4098964 -0.96518254 0
-0.14096385 -2.4024508 -0.95731866 0
-0.14434172 -2.4380338 -0.97573394 0
-0.1435682 -2.399621 -0.96400601 0
-0.1406723 -2.3916001 -0.95752835 0
-0.14296444 -2.420671 -0.96540856 0
-0.14368108 -2.4015076 -0.95927954 0
-0.14201064 -2.418309 -0.97145009 0
-0.14481272 -2.4459894 -0.98273361 0
-0.14274299 -2.3839116 -0.94946831 0
-0.14108709 -2.4025815 -0.9569726 0
-0.14349948 -2.4277527 -0.97458923 0
-0.14452441 -2.40979 -0.96541399 0
-0.14088385 -2.3932393 -0.95339262 0
-0.14146668 -2.4011781 -0.96043265 0
-0.14534751 -2.4274087 -0.9751721 0
-0.14326555 -2.4297273 -0.96969086 0
-0.14423306 -2.4107337 -0.96309906 0
-0.14236389 -2.4183815 -0.97121781 0
-0.14281388 -2.4181216 -0.97179842 0
-0.14439274 -2.4114635 -0.96124649 0
-0.14241953 -2.4213052 -0.96389729 0
-0.14273909 -2.4188254 -0.97005641 0
-0.14328432 -2.3910308 -0.9585619 0
-0.14142181 -2.4023781 -0.95743406 0
-0.14379862 -2.4387681 -0.97397757 0
-0.14325131 -2.39048 -0.9599396 0
-0.14208759 -2.4097495 -0.96587688 0
-0.14412445 -2.4482887 -0.9770931 0
-0.14426613 -2.4112864 -0.96170968 0
-0.14327498 -2.4279065 -0.97423947 0
-0.14201662 -2.408546 -0.96888471 0
-0.14435415 -2.4108191 -0.9628675 0
-0.14078254 -2.3934741 -0.95281798 0
-0.14130282 -2.4003568 -0.96250778 0
-0.14615834 -2.4370344 -0.97795796 0
-0.14132926 -2.3929842 -0.95396721 0
-0.1415967 -2.4112599 -0.96217287 0
-0.14347246 -2.3999505 -0.96319932 0
-0.14265695 -2.4095767 -0.96622401 0
-0.14279148 -2.4296155 -0.97004086 0
-0.14363515 -2.4280722 -0.97377312 0
-0.14100221 -2.3991709 -0.96550387 0
-0.14365909 -2.4011402 -0.96020204 0
-0.14105031 -2.3843768 -0.94855243 0
-0.1441302 -2.4564149 -0.98374373 0
-0.14369151 -2.3997524 -0.9636603 0
-0.14176916 -2.3926373 -0.95477152 0
-0.14246927 -2.4301 -0.9688741 0
-0.14582187 -2.4372892 -0.97737277 0
-0.14211631 -2.3907323 -0.9594804 0
-0.14405656 -2.4571743 -0.98185617 0
-0.14504305 -2.4301338 -0.96840727 0
-0.14338571 -2.4101362 -0.96471959 0
-0.14119755 -2.4084079 -0.96934736 0
-0.14437343 -2.4189146 -0.9695918 0
-0.14306402 -2.4027863 -0.95616496 0
-0.14000051 -2.3919153 -0.95683926 0
-0.14519027 -2.4365282 -0.97936219 0
-0.14333297 -2.4014823 -0.95939481 0
-0.13921458 -2.3745847 -0.94634408 0
-0.14336373 -2.4097667 -0.96564543 0
-0.14423256 -2.4185038 -0.97063714 0
-0.14253674 -2.4292576 -0.97097415 0
-0.14357534 -2.4113739 -0.96159387 0
-0.14471875 -2.4286153 -0.97225714 0
-0.143592 -2.4097068 -0.96576118 0
-0.14318466 -2.4028709 -0.95593417 0
-0.14243391 -2.4294968 -0.97039086 0
-0.14409447 -2.418139 -0.9715662 0
-0.14497101 -2.4289269 -0.97144073 0
-0.14345586 -2.4489374 -0.97556454 0
-0.14613473 -2.4563439 -0.98362577 0
-0.14390263 -2.4090848 -0.96726531 0
-0.14100356 -2.4011593 -0.96054798 0
-0.1441358 -2.4207869 -0.96494359 0
-0.14376807 -2.4107153 -0.96321481 0
-0.14066802 -2.3993759 -0.96504301 0
-0.1452098 -2.436856 -0.97854304 0
-0.14461651 -2.421036 -0.96424603 0
-0.14124455 -2.4111881 -0.96240443 0
-0.14375225 -2.4182527 -0.97133392 0
-0.14464137 -2.4195035 -0.96808153 0
-0.14085406 -2.4025493 -0.95708793 0
-0.14327566 -2.4102354 -0.96448815 0
-0.14500958 -2.4276164 -0.97470582 0
-0.14098737 -2.4008834 -0.96123976 0
-0.14323129 -2.4114404 -0.96147811 0
-0.14488506 -2.429445 -0.97015756 0
-0.14242195 -2.4273012 -0.97587144 0
-0.14244369 -2.3904362 -0.9601692 0
-0.14180404 -2.4207392 -0.96540856 0
-0.14399239 -2.4183781 -0.97098553 0
-0.1440651 -2.4098639 -0.9652983 0
-0.14356777 -2.448837 -0.97579974 0
-0.14593276 -2.4569223 -0.98221016 0
-0.14291029 -2.3905466 -0.9598248 0
-0.1415073 -2.4097373 -0.96599257 0
-0.14487843 -2.4391716 -0.97280633 0
-0.1438175 -2.4115441 -0.96113068 0
-0.14147742 -2.4092286 -0.96726531 0
-0.1457283 -2.4455574 -0.98367321 0
-0.1447769 -2.4295912 -0.96980751 0
-0.14204153 -2.4208179 -0.96517611 0
-0.14411663 -2.4185107 -0.97063714 0
-0.143812 -2.409508 -0.96622401 0
-0.14181216 -2.4208777 -0.96505982 0
-0.14411104 -2.4203711 -0.96598977 0
-0.14479074 -2.4278634 -0.97412288 0
-0.14027183 -2.3906567 -0.9599396 0
-0.14255567 -2.3923154 -0.95546085 0
-0.14317921 -2.4027793 -0.95616496 0
-0.1412871 -2.4099357 -0.96552974 0
-0.14320107 -2.3992724 -0.96492779 0
-0.1431082 -2.4015877 -0.9591642 0
-0.1423555 -2.4301531 -0.96875739 0
-0.14335741 -2.3999574 -0.96319932 0
-0.14027007 -2.3925879 -0.95511621 0
-0.14444129 -2.4298439 -0.96922415 0
-0.14327811 -2.400563 -0.96170086 0
-0.14242743 -2.4273946 -0.97563833 0
-0.14505683 -2.4382255 -0.9751485 0
-0.14497072 -2.4308813 -0.96653986 0
-0.14144056 -2.4105754 -0.96390939 0
-0.1461767 -2.4550638 -0.98680979 0
-0.14443703 -2.4199803 -0.96691948 0
-0.140846 -2.4024117 -0.95743406 0
-0.14335823 -2.4096744 -0.96587688 0
-0.14445333 -2.4183042 -0.9711017 0
-0.14145409 -2.4108059 -0.96333063 0
-0.14169018 -2.3835638 -0.95049858 0
-0.14495158 -2.4286015 -0.97225714 0
-0.1424192 -2.4272544 -0.97598803 0
-0.14447206 -2.4283965 -0.97284025 0
-0.14286675 -2.3936708 -0.95201337 0
-0.14243662 -2.429543 -0.97027421 0
-0.14519586 -2.4366219 -0.97912812 0
-0.14331104 -2.4011149 -0.96031737 0
-0.14139789 -2.4118254 -0.96078324 0
-0.14228001 -2.391551 -0.95741355 0
-0.14267287 -2.3904226 -0.9601692 0
-0.14425184 -2.4207799 -0.96494359 0
-0.14198954 -2.3828149 -0.9523297 0
-0.14109839 -2.4086931 -0.96865338 0
-0.145896 -2.4463966 -0.98155892 0
-0.14462203 -2.4211283 -0.96401352 0
-0.14081644 -2.4019074 -0.95870286 0
-0.14276573 -2.3997152 -0.96389079 0
-0.14396888 -2.4101942 -0.96448815 0
-0.14193903 -2.4210556 -0.96459484 0
-0.14382397 -2.4194591 -0.96831387 0
-0.14434017 -2.4183576 -0.97098553 0
-0.14044032 -2.3915677 -0.95764321 0
-0.14401425 -2.4207013 -0.96517611 0
-0.14378731 -2.4110377 -0.96240443 0
-0.14121929 -2.4087789 -0.96842206 0
-0.14176653 -2.3809946 -0.95690495 0
-0.14393035 -2.4114912 -0.96124649 0
-0.14179592 -2.4206004 -0.96575731 0
-0.14453854 -2.4275508 -0.97493893 0
-0.14506245 -2.4285014 -0.97249043 0
-0.14084868 -2.4024577 -0.95731866 0
-0.14273827 -2.401195 -0.96020204 0
-0.14489599 -2.4276698 -0.97458923 0
-0.14042686 -2.3913386 -0.95821738 0
-0.14389548 -2.4206622 -0.96529233 0
-0.14189199 -2.4182692 -0.9715662 0
-0.14573111 -2.4456043 -0.98355573 0
-0.14324248 -2.4019022 -0.95835686 0
-0.14137362 -2.4114115 -0.96182549 0
-0.14289175 -2.3998928 -0.96342981 0
-0.14382303 -2.409693 -0.96576118 0
-0.14193362 -2.4209633 -0.96482736 0
-0.14232631 -2.392329 -0.95546085 0
-0.14534336 -2.43713 -0.9778409 0
-0.1431181 -2.4371676 -0.97807497 0
-0.14378731 -2.4110377 -0.96240443 0
-0.14227405 -2.3933859 -0.95281798 0
-0.14259034 -2.4281807 -0.97365648 0
-0.14442277 -2.4177926 -0.97237897 0
-0.14308564 -2.4109409 -0.96275175 0
-0.14301305 -2.4393752 -0.97257209 0
-0.14391644 -2.4093163 -0.96668684 0
-0.1417965 -2.3814979 -0.95564711 0
-0.14190382 -2.420455 -0.966106 0
-0.14546305 -2.4391367 -0.97280633 0
-0.143592 -2.4097068 -0.96576118 0
-0.14024487 -2.390197 -0.96108747 0
-0.14485458 -2.4289339 -0.97144073 0
-0.144177 -2.4214787 -0.96319962 0
-0.14065018 -2.4010415 -0.96089387 0
-0.14388913 -2.4108005 -0.96298331 0
-0.14084332 -2.4023659 -0.95754939 0
-0.14389856 -2.4187567 -0.97005641 0
-0.14434294 -2.4184039 -0.97086942 0
-0.14145678 -2.410852 -0.96321481 0
-0.14290252 -2.4020145 -0.95812613 0
-0.1442796 -2.4192924 -0.96866244 0
-0.14133476 -2.4087722 -0.96842206 0
-0.14251204 -2.391583 -0.9572987 0
-0.14264268 -2.3937755 -0.95178348 0
-0.14188483 -2.4201312 -0.96691948 0
-0.14365786 -2.4088671 -0.96784371 0
-0.14320964 -2.4013515 -0.95974082 0
-0.14248013 -2.4302852 -0.96840727 0
-0.14379917 -2.4190419 -0.96935946 0
-0.14256102 -2.3904753 -0.9600544 0
-0.14046183 -2.3919342 -0.95672441 0
-0.1442491 -2.4207337 -0.96505982 0
-0.1428479 -2.4010963 -0.96043265 0
-0.14132659 -2.408633 -0.96876907 0
-0.14614737 -2.4466643 -0.98085403 0
-0.14317648 -2.4027336 -0.95628029 0
-0.14188755 -2.4201775 -0.96680331 0
-0.14243822 -2.3903441 -0.96039873 0
-0.14430447 -2.4197094 -0.96761674 0
-0.14360577 -2.4099379 -0.96518254 0
-0.14410833 -2.4183714 -0.97098553 0
-0.14251491 -2.4288857 -0.97190726 0
-0.1438175 -2.4115441 -0.96113068 0
-0.14452463 -2.42928 -0.97062421 0
-0.14283775 -2.4363849 -0.98006415 0
-0.14434017 -2.4183576 -0.97098553 0
-0.14426009 -2.4209185 -0.96459484 0
-0.14341205 -2.4481897 -0.97744578 0
-0.14421315 -2.4181786 -0.97145009 0
-0.14361952 -2.4101686 -0.96460384 0
-0.14193903 -2.4210556 -0.96459484 0
-0.14473538 -2.4288943 -0.97155738 0
-0.14544623 -2.4368889 -0.97842604 0
-0.14020029 -2.3913977 -0.95810258 0
-0.14457431 -2.4301152 -0.96852398 0
-0.14392211 -2.4113531 -0.96159387 0
-0.14068696 -2.399699 -0.96423644 0
-0.14384604 -2.4178736 -0.97226286 0
-0.14435962 -2.4206345 -0.96529233 0
-0.1408245 -2.402045 -0.95835686 0
-0.14288351 -2.3997543 -0.96377552 0
-0.14450046 -2.4190934 -0.96912712 0
-0.14193362 -2.4209633 -0.96482736 0
-0.14483415 -2.438426 -0.97468013 0
-0.14204884 -2.4189591 -0.96982408 0
-0.14388724 -2.4205234 -0.96564102 0
-0.1442546 -2.420826 -0.96482736 0
-0.14244659 -2.4277213 -0.9748224 0
-0.14307779 -2.3991406 -0.96527344 0
-0.14311914 -2.4017713 -0.95870286 0
-0.14192007 -2.4207323 -0.96540856 0
-0.14577034 -2.4462626 -0.98191136 0
-0.14159951 -2.3724387 -0.95135903 0
-0.14017677 -2.3929603 -0.95419699 0
-0.14398952 -2.4202855 -0.96622223 0
-0.14380372 -2.4093695 -0.96657115 0
-0.13973083 -2.3814363 -0.95610452 0
-0.14520425 -2.4387317 -0.97386044 0
-0.14286131 -2.3935797 -0.95224327 0
-0.14086148 -2.4007061 -0.96170086 0
-0.14241904 -2.3900225 -0.9612022 0
-0.14277956 -2.3922102 -0.95569062 0
-0.14180945 -2.4208314 -0.96517611 0
-0.14322898 -2.4094501 -0.9664554 0
-0.14458036 -2.418483 -0.97063714 0
-0.14092888 -2.4018548 -0.9588182 0
-0.14365791 -2.4205835 -0.96552479 0
-0.14295143 -2.3912349 -0.95810258 0
-0.1414611 -2.4089506 -0.9679594 0
-0.14453073 -2.4215503 -0.96296704 0
-0.1430753 -2.4384363 -0.97491431 0
-0.14341588 -2.4086957 -0.96830642 0
-0.14387538 -2.4105701 -0.96356213 0
-0.13976106 -2.3839059 -0.94992626 0
-0.14434458 -2.4282172 -0.97330672 0
-0.14234816 -2.3811436 -0.9564476 0
-0.14035793 -2.3921239 -0.95626497 0
-0.14499812 -2.4392111 -0.97268921 0
-0.14428236 -2.4193389 -0.96854627 0
-0.14024487 -2.390197 -0.96108747 0
-0.14570059 -2.4470675 -0.97991401 0
-0.14473216 -2.4308028 -0.96677327 0
-0.14135203 -2.4110432 -0.96275175 0
-0.14365786 -2.4088671 -0.96784371 0
-0.14485458 -2.4289339 -0.97144073 0
-0.1400781 -2.3932407 -0.95350754 0
-0.14459124 -2.428436 -0.97272366 0
-0.14677922 -2.4552648 -0.9862203 0
-0.14196825 -2.4195688 -0.96831387 0
-0.14268585 -2.4022572 -0.95754939 0
-0.14443703 -2.4199803 -0.96691948 0
-0.14362085 -2.4457293 -0.98355573 0
-0.14509578 -2.4369099 -0.97842604 0
-0.14426285 -2.4209645 -0.96447855 0
-0.14476292 -2.427397 -0.97528869 0
-0.14360853 -2.4099839 -0.96506679 0
-0.14019282 -2.393234 -0.95350754 0
-0.14461894 -2.4289014 -0.97155738 0
-0.14311633 -2.3997867 -0.9636603 0
-0.14085607 -2.400614 -0.96193141 0
-0.14491549 -2.4299552 -0.9688741 0
-0.14235349 -2.3927858 -0.95431191 0
-0.14068155 -2.3996067 -0.96446693 0
-0.14277373 -2.3901858 -0.96074313 0
-0.14290525 -2.4020603 -0.95801079 0
-0.14245296 -2.4298217 -0.96957415 0
-0.14268109 -2.3905604 -0.9598248 0
-0.14403385 -2.4190745 -0.96924329 0
-0.14289884 -2.4394286 -0.97245491 0
-0.14432378 -2.4200335 -0.96680331 0
-0.14234278 -2.3906727 -0.9595952 0
-0.14257666 -2.4279475 -0.97423947 0
-0.14391662 -2.4112611 -0.96182549 0
-0.14282823 -2.4027083 -0.95639569 0
-0.14246574 -2.4280477 -0.9740063 0
-0.14498727 -2.427243 -0.97563833 0
-0.14211595 -2.3926625 -0.9546566 0
-0.14094234 -2.4020841 -0.95824152 0
-0.14777693 -2.4739449 -0.99330705 0
-0.14125803 -2.4114182 -0.96182549 0
-0.14422432 -2.4203179 -0.966106 0
-0.14510971 -2.4371438 -0.9778409 0
-0.14189745 -2.4183621 -0.97133392 0
-0.14654684 -2.45731 -0.98114818 0
-0.1449652 -2.4307888 -0.96677327 0
-0.14171998 -2.4193044 -0.96901095 0
-0.14408615 -2.4179995 -0.97191453 0
-0.14401296 -2.4109318 -0.96263599 0
-0.14138442 -2.4115956 -0.9613623 0
-0.14278492 -2.4000378 -0.96308404 0
-0.1443568 -2.4186361 -0.97028869 0
-0.14093696 -2.4019926 -0.95847219 0
-0.14388174 -2.4204311 -0.96587354 0
-0.14271671 -2.3911569 -0.95833224 0
-0.14298479 -2.4368937 -0.97877711 0
-0.14242737 -2.3920934 -0.95603526 0
-0.14165078 -2.3752124 -0.94440532 0
-0.1434855 -2.4474337 -0.97932643 0
-0.14352858 -2.4086423 -0.96842206 0
-0.14332201 -2.4012985 -0.95985609 0
-0.14138442 -2.4115956 -0.9613623 0
-0.14500123 -2.4372911 -0.97748977 0
-0.14334916 -2.3998191 -0.96354502 0
-0.14146219 -2.4109442 -0.96298331 0
-0.14604409 -2.4469059 -0.98026651 0
-0.14188381 -2.4181297 -0.97191453 0
-0.14338845 -2.4101825 -0.96460384 0
-0.14430131 -2.4216101 -0.96285075 0
-0.14254491 -2.4293969 -0.97062421 0
-0.14310257 -2.3995562 -0.96423644 0
-0.14474922 -2.4291267 -0.97097415 0
-0.14139789 -2.4118254 -0.96078324 0
-0.14470765 -2.4284291 -0.97272366 0
-0.14299305 -2.3996553 -0.96400601 0
-0.14197913 -2.419754 -0.96784914 0
-0.14271121 -2.3929937 -0.95373738 0
-0.14428069 -2.4291079 -0.97109079 0
-0.14156024 -2.4086659 -0.96865338 0
-0.14471295 -2.4187546 -0.96994025 0
-0.14303009 -2.4119599 -0.96020418 0
-0.14309719 -2.4388094 -0.97397757 0
-0.14412528 -2.4089322 -0.96761233 0
-0.14249715 -2.4010248 -0.96066326 0
-0.140846 -2.4024117 -0.95743406 0
-0.1462983 -2.4472201 -0.97944391 0
-0.14265344 -2.3997681 -0.96377552 0
-0.14086148 -2.4007061 -0.96170086 0
-0.14572191 -2.4395416 -0.97175205 0
-0.14432757 -2.4298971 -0.96910745 0
-0.14279294 -2.3905075 -0.9599396 0
-0.14390096 -2.4207544 -0.96505982 0
-0.14037402 -2.3923984 -0.95557576 0
-0.14388603 -2.408807 -0.9679594 0
-0.14546597 -2.4470816 -0.97991401 0
-0.14247742 -2.430239 -0.96852398 0
-0.14343438 -2.4012458 -0.95997143 0
-0.14333072 -2.4092119 -0.96703392 0
-0.14259309 -2.4282272 -0.97353989 0
-0.14448392 -2.4207661 -0.96494359 0
-0.14324495 -2.4116704 -0.96089906 0
-0.14364848 -2.4461997 -0.98238122 0
-0.1440015 -2.4088001 -0.9679594 0
-0.14464457 -2.4391854 -0.97280633 0
-0.14311086 -2.4390423 -0.97339195 0
-0.14568266 -2.4369218 -0.97830904 0
-0.1427 -2.4005513 -0.96181613 0
-0.14041156 -2.393038 -0.95396721 0
-0.1451152 -2.4293847 -0.97027421 0
-0.14431688 -2.4277511 -0.97447264 0
-0.14135921 -2.409189 -0.967381 0
-0.14402395 -2.4111161 -0.96217287 0
-0.14228489 -2.3935683 -0.95235825 0
-0.14224933 -2.4283409 -0.97330672 0
-0.14333539 -2.3995886 -0.96412122 0
-0.1407201 -2.4022353 -0.95789546 0
-0.14189976 -2.3813081 -0.95610452 0
-0.14491268 -2.4279497 -0.97388971 0
-0.1403928 -2.3927183 -0.95477152 0
-0.14256383 -2.3924525 -0.95511621 0
-0.14247379 -2.3909411 -0.95890635 0
-0.14189473 -2.4183156 -0.97145009 0
-0.14266489 -2.3922169 -0.95569062 0
-0.14296517 -2.4030674 -0.95547259 0
-0.14239031 -2.4287529 -0.97225714 0
-0.14332987 -2.3994963 -0.96435171 0
-0.14256111 -2.3924067 -0.95523107 0
-0.14060763 -2.4022877 -0.95778012 0
-0.14455797 -2.4278772 -0.97412288 0
-0.14434572 -2.4184504 -0.97075325 0
-0.14134662 -2.4109509 -0.96298331 0
-0.14565848 -2.4483385 -0.97674036 0
-0.1438313 -2.4098315 -0.96541399 0
-0.14307959 -2.436512 -0.97971314 0
-0.14350399 -2.4101756 -0.96460384 0
-0.14375117 -2.4123778 -0.95904583 0
-0.14188483 -2.4201312 -0.96691948 0
-0.14354238 -2.408874 -0.96784371 0
-0.1455327 -2.4383376 -0.97479725 0
-0.14248286 -2.4303317 -0.96829063 0
-0.1438971 -2.4089923 -0.96749669 0
-0.14198999 -2.4199393 -0.96738434 0
-0.14346248 -2.4114265 -0.96147811 0
-0.14386161 -2.4103394 -0.96414089 0
-0.14295729 -2.436425 -0.97994715 0
-0.14402004 -2.4188426 -0.96982408 0
-0.14108403 -2.3657091 -0.9412843 0
-0.14069055 -2.4017308 -0.9591642 0
-0.14397855 -2.4181459 -0.9715662 0
-0.14398542 -2.410471 -0.96379364 0
-0.14140059 -2.4118714 -0.96066743 0
-0.14447761 -2.4284897 -0.97260702 0
-0.14445333 -2.4183042 -0.9711017 0
-0.14154527 -2.4103839 -0.9643724 0
-0.14346248 -2.4114265 -0.96147811 0
-0.14474922 -2.4291267 -0.97097415 0
-0.14089805 -2.3993623 -0.96504301 0
-0.14312458 -2.399925 -0.96331453 0
-0.14426835 -2.4210567 -0.96424603 0
-0.14136553 -2.4112732 -0.96217287 0
-0.14366615 -2.4090061 -0.96749669 0
-0.14550483 -2.437871 -0.97596806 0
-0.14302123 -2.4395146 -0.97222066 0
-0.14395097 -2.4196377 -0.96784914 0
-0.14279294 -2.3905075 -0.9599396 0
-0.14291343 -2.4021978 -0.95766473 0
-0.14546305 -2.4391367 -0.97280633 0
-0.14309335 -2.4367464 -0.97912812 0
-0.14463821 -2.4272637 -0.97563833 0
-0.14324795 -2.4019938 -0.95812613 0
-0.14071473 -2.4021435 -0.95812613 0
-0.14398962 -2.4183319 -0.9711017 0
-0.14216626 -2.3819344 -0.95450336 0
-0.14095847 -2.4023592 -0.95754939 0
-0.14397576 -2.4200542 -0.96680331 0
-0.14313008 -2.4000173 -0.96308404 0
-0.13986647 -2.3817956 -0.95518965 0
-0.14368819 -2.4113209 -0.96170968 0
-0.14336875 -2.4118013 -0.96055162 0
-0.13985305 -2.381567 -0.95576149 0
-0.14288281 -2.3900871 -0.96097267 0
-0.1441918 -2.4295793 -0.96992421 0
-0.14082719 -2.402091 -0.95824152 0
-0.14501792 -2.4277561 -0.97435606 0
-0.14291096 -2.4002154 -0.962623 0
-0.14192007 -2.4207323 -0.96540856 0
-0.14313553 -2.4020464 -0.95801079 0
-0.14279863 -2.4002681 -0.96250778 0
-0.1429738 -2.4367063 -0.97924519 0
-0.14431827 -2.4199409 -0.96703571 0
-0.14075449 -2.4008508 -0.96135503 0
-0.1437678 -2.4087677 -0.96807504 0
-0.14146139 -2.3739517 -0.94759822 0
-0.14072816 -2.4023728 -0.95754939 0
-0.1451125 -2.4371908 -0.9777239 0
-0.14391091 -2.4092238 -0.96691823 0
-0.14037938 -2.3924899 -0.95534599 0
-0.14530638 -2.4483595 -0.97674036 0
-0.14327261 -2.400471 -0.96193141 0
-0.14133747 -2.4088185 -0.96830642 0
-0.14328115 -2.4103277 -0.96425664 0
-0.14398246 -2.412364 -0.95904583 0
-0.14242029 -2.4292645 -0.97097415 0
-0.14385711 -2.4180598 -0.97179842 0
-0.14644083 -2.4476347 -0.97838616 0
-0.14248013 -2.4302852 -0.96840727 0
-0.14411178 -2.428231 -0.97330672 0
-0.14357372 -2.3997133 -0.96377552 0
-0.14156695 -2.410753 -0.96344638 0
-0.14365791 -2.4205835 -0.96552479 0
-0.14384232 -2.4100163 -0.9649511 0
-0.14417319 -2.4551351 -0.98692769 0
-0.14667775 -2.4654713 -0.98769277 0
-0.14307491 -2.4029691 -0.95570338 0
-0.14190111 -2.4204087 -0.96622223 0
-0.14374606 -2.4103463 -0.96414089 0
-0.14073621 -2.4025102 -0.95720333 0
-0.14570616 -2.4471614 -0.97967899 0
-0.14421038 -2.4181321 -0.9715662 0
-0.14087768 -2.4009821 -0.96100914 0
-0.1442546 -2.420826 -0.96482736 0
-0.14445083 -2.4202116 -0.9663384 0
-0.14284599 -2.4365256 -0.97971314 0
-0.14245464 -2.39062 -0.95971 0
-0.1443789 -2.4209576 -0.96447855 0
-0.14190111 -2.4204087 -0.96622223 0
-0.14299029 -2.3996091 -0.96412122 0
-0.14329733 -2.4008851 -0.96089387 0
-0.14248286 -2.4303317 -0.96829063 0
-0.14296027 -2.4010434 -0.96054798 0
-0.1425665 -2.3905671 -0.9598248 0
-0.14152087 -2.4099684 -0.96541399 0
-0.14314647 -2.4022298 -0.95754939 0
-0.14290252 -2.4020145 -0.95812613 0
-0.14242743 -2.4273946 -0.97563833 0
-0.14277373 -2.3901858 -0.96074313 0
-0.14191328 -2.3834593 -0.95072752 0
-0.14058615 -2.401921 -0.95870286 0
-0.14477126 -2.427537 -0.97493893 0
-0.14272764 -2.3913403 -0.95787287 0
-0.14463554 -2.4291801 -0.9708575 0
-0.14490154 -2.4277632 -0.97435606 0
-0.14138636 -2.4096518 -0.96622401 0
-0.1435726 -2.4113278 -0.96170968 0
-0.1431601 -2.4024589 -0.9569726 0
-0.14343049 -2.4464953 -0.9816764 0
-0.14517909 -2.4363406 -0.97983015 0
-0.1455633 -2.4388504 -0.97350907 0
-0.14180133 -2.4206929 -0.96552479 0
-0.14376329 -2.4184384 -0.97086942 0
-0.14227499 -2.3818364 -0.95473212 0
-0.14149731 -2.4115427 -0.96147811 0
-0.14264499 -2.4015694 -0.95927954 0
-0.14280941 -2.3907831 -0.95925075 0
-0.14312634 -2.4373081 -0.9777239 0
-0.14211595 -2.3926625 -0.9546566 0
-0.14206545 -2.3840888 -0.94912487 0
-0.14126813 -2.4096122 -0.96633971 0
-0.14418542 -2.4177134 -0.97261119 0
-0.14222616 -2.3829379 -0.95198637 0
-0.14181216 -2.4208777 -0.96505982 0
-0.14554699 -2.4464645 -0.98144144 0
-0.14458869 -2.4186223 -0.97028869 0
-0.14082181 -2.4019992 -0.95847219 0
-0.1437712 -2.4205303 -0.96564102 0
-0.14200792 -2.4182625 -0.9715662 0
-0.14230998 -2.3920546 -0.95615011 0
-0.14418249 -2.421571 -0.96296704 0
-0.14131689 -2.4104438 -0.96425664 0
-0.14408338 -2.417953 -0.97203064 0
-0.14321512 -2.4014432 -0.95951015 0
-0.14247742 -2.430239 -0.96852398 0
-0.14346823 -2.409575 -0.96610832 0
-0.1443374 -2.4183111 -0.9711017 0
-0.14308898 -2.4386694 -0.97432888 0
-0.1441303 -2.4206944 -0.96517611 0
-0.14393169 -2.4193132 -0.96866244 0
-0.14350361 -2.4457359 -0.98355573 0
-0.14371578 -2.4098384 -0.96541399 0
-0.14295429 -2.4028845 -0.95593417 0
-0.14133851 -2.4108126 -0.96333063 0
-0.14389433 -2.408946 -0.96761233 0
-0.14375982 -2.4105768 -0.96356213 0
-0.14085406 -2.4025493 -0.95708793 0
-0.14514312 -2.437705 -0.97643632 0
-0.14323136 -2.3997798 -0.9636603 0
-0.14088847 -2.401166 -0.96054798 0
-0.14247635 -2.392916 -0.95396721 0
-0.14341041 -2.4105515 -0.96367788 0
-0.14241098 -2.4271142 -0.97633767 0
-0.14459085 -2.4303932 -0.9678238 0
-0.14178237 -2.4203694 -0.9663384 0
-0.14389433 -2.408946 -0.96761233 0
-0.14318223 -2.4008918 -0.96089387 0
-0.14248013 -2.4302852 -0.96840727 0
-0.14318497 -2.4009378 -0.96077853 0
-0.14398962 -2.4183319 -0.9711017 0
-0.14303695 -2.4377825 -0.97655338 0
-0.14326435 -2.4022689 -0.95743406 0
-0.14234805 -2.3926945 -0.95454174 0
-0.14134291 -2.4089112 -0.96807504 0
-0.14444222 -2.4181182 -0.9715662 0
-0.14279555 -2.4021587 -0.95778012 0
-0.14081375 -2.4018617 -0.9588182 0
-0.14610809 -2.4460068 -0.98249871 0
-0.1429411 -2.4007215 -0.96135503 0
-0.14073353 -2.4024644 -0.95731866 0
-0.14431551 -2.4198947 -0.96715194 0
-0.14190795 -2.3814454 -0.95576149 0
-0.14041069 -2.3910632 -0.95890635 0
-0.14270031 -2.3928111 -0.95419699 0
-0.14337149 -2.4118474 -0.96043581 0
-0.14190836 -2.4185481 -0.97086942 0
-0.14331885 -2.3993115 -0.96481258 0
-0.14454396 -2.429605 -0.96980751 0
-0.14445333 -2.4183042 -0.9711017 0
-0.14291918 -2.4003534 -0.96227723 0
-0.14126612 -2.4115562 -0.96147811 0
-0.14378455 -2.4109917 -0.96252018 0
-0.1441277 -2.4186964 -0.97017258 0
-0.1431071 -2.4369805 -0.97854304 0
-0.1421255 -2.3831725 -0.95141417 0
-0.14272392 -2.4028983 -0.95593417 0
-0.14183596 -2.4192975 -0.96901095 0
-0.14510363 -2.4272361 -0.97563833 0
-0.14222249 -2.3925185 -0.95500129 0
-0.14029685 -2.3930447 -0.95396721 0
-0.14546578 -2.4372165 -0.97760683 0
-0.14467157 -2.4278235 -0.97423947 0
-0.14069591 -2.4018226 -0.95893353 0
-0.14247091 -2.3928246 -0.95419699 0
-0.14359476 -2.4097531 -0.96564543 0
-0.13958447 -2.3808937 -0.95747662 0
-0.14252022 -2.3917205 -0.95695412 0
-0.14484867 -2.4307959 -0.96677327 0
-0.14186585 -2.4198072 -0.96773291 0
-0.14254731 -2.3902454 -0.96062833 0
-0.14333571 -2.4015281 -0.95927954 0
-0.14127959 -2.4117863 -0.96089906 0
-0.14434735 -2.4282637 -0.97319007 0
-0.14242846 -2.4294038 -0.97062421 0
-0.14421384 -2.4299505 -0.96899074 0
-0.14451154 -2.4192786 -0.96866244 0
-0.14133203 -2.4087257 -0.96853775 0
-0.14423925 -2.4284103 -0.97284025 0
-0.14353295 -2.4028959 -0.95581877 0
-0.14189297 -2.42027 -0.96657085 0
-0.14594412 -2.4551251 -0.98669189 0
-0.14587776 -2.4382234 -0.97503144 0
-0.14085406 -2.4025493 -0.95708793 0
-0.1448739 -2.4470227 -0.98014903 0
-0.14535031 -2.4274554 -0.97505552 0
-0.14057919 -2.3919733 -0.95660955 0
-0.14374515 -2.4299316 -0.96910745 0
-0.14421099 -2.4103649 -0.96402514 0
-0.14156841 -2.4088049 -0.96830642 0
-0.14276424 -2.4094312 -0.96657115 0
-0.14474636 -2.4212596 -0.96366471 0
-0.14258304 -2.4300468 -0.96899074 0
-0.14230013 -2.3996501 -0.96412122 0
-0.14318891 -2.3913586 -0.95775807 0
-0.14096923 -2.4025426 -0.95708793 0
-0.14180927 -2.4011118 -0.96054798 0
-0.14368322 -2.3996141 -0.96400601 0
-0.14460951 -2.4565284 -0.98338985 0
-0.14411475 -2.4106946 -0.96321481 0
-0.14168933 -2.4088907 -0.96807504 0
-0.14426419 -2.4367242 -0.97901112 0
-0.14361255 -2.4022939 -0.95731866 0
-0.14217114 -2.421042 -0.96459484 0
-0.14451447 -2.4369915 -0.97830904 0
-0.14484002 -2.4189334 -0.96947563 0
-0.14107902 -2.4024441 -0.95731866 0
-0.14326875 -2.4199104 -0.96726811 0
-0.1453559 -2.4275486 -0.9748224 0
-0.14174105 -2.40977 -0.96587688 0
-0.14198136 -2.4020691 -0.95812613 0
-0.14537588 -2.4298346 -0.96910745 0
-0.14280395 -2.4278407 -0.97447264 0
-0.1435689 -2.4269524 -0.97657079 0
-0.14423858 -2.410826 -0.9628675 0
-0.14338025 -2.4396336 -0.97186923 0
-0.14362688 -2.4279325 -0.97412288 0
-0.1449365 -2.4186015 -0.97028869 0
-0.14227363 -2.4208043 -0.96517611 0
-0.14239764 -2.4110739 -0.96252018 0
-0.14370807 -2.4000289 -0.96296883 0
-0.14347684 -2.4372876 -0.9777239 0
-0.14349027 -2.4295743 -0.97004086 0
-0.14318097 -2.3931487 -0.95327771 0
-0.14301267 -2.4175494 -0.97319168 0
-0.14377144 -2.4010873 -0.96031737 0
-0.14010654 -2.3839312 -0.94981176 0
-0.14437976 -2.4466279 -0.98120648 0
-0.1450413 -2.4184089 -0.97075325 0
-0.14152077 -2.4020963 -0.95812613 0
-0.14206176 -2.4112787 -0.96205705 0
-0.14538659 -2.4280615 -0.97353989 0
-0.142184 -2.4094191 -0.96668684 0
-0.14226303 -2.4107583 -0.96333063 0
-0.14584719 -2.4396741 -0.97140062 0
-0.14340125 -2.4379957 -0.97596806 0
-0.14277539 -2.41747 -0.97342384 0
-0.14430997 -2.4100811 -0.96471959 0
-0.14338025 -2.4396336 -0.97186923 0
-0.14330521 -2.4284189 -0.9729569 0
-0.14547226 -2.4275417 -0.9748224 0
-0.1435703 -2.438875 -0.97374332 0
-0.14230652 -2.4114952 -0.96147811 0
-0.14307155 -2.3913198 -0.95787287 0
-0.14193392 -2.4091086 -0.96749669 0
-0.14203131 -2.4009602 -0.96089387 0
-0.14241916 -2.3842499 -0.94866693 0
-0.14157777 -2.4109373 -0.96298331 0
-0.14459515 -2.4363754 -0.97983015 0
-0.14042495 -2.3932662 -0.95339262 0
-0.14323857 -2.4194009 -0.96854627 0
-0.14478996 -2.4180975 -0.9715662 0
-0.14166352 -2.4104233 -0.96425664 0
-0.14331801 -2.4207428 -0.96517611 0
-0.14520389 -2.4289131 -0.97144073 0
-0.14145567 -2.4088581 -0.96819073 0
-0.14354245 -2.418638 -0.97040486 0
-0.14351928 -2.402667 -0.95639569 0
-0.14475159 -2.4670055 -0.98413992 0
-0.14308049 -2.4089015 -0.96784371 0
-0.142517 -2.382051 -0.95416021 0
-0.14248557 -2.430378 -0.96817392 0
-0.14348976 -2.4197116 -0.96773291 0
-0.14368875 -2.3997064 -0.96377552 0
-0.14358906 -2.4471924 -0.97991401 0
-0.14386438 -2.4299712 -0.96899074 0
-0.14313999 -2.3924639 -0.95500129 0
-0.14254652 -2.4274344 -0.9755218 0
-0.14260213 -2.4086509 -0.96853775 0
-0.14371675 -2.4021039 -0.95778012 0
-0.14204967 -2.4209564 -0.96482736 0
-0.14482386 -2.4461775 -0.98226374 0
-0.14495875 -2.4189727 -0.96935946 0
-0.14162913 -2.4118118 -0.96078324 0
-0.14357923 -2.3998053 -0.96354502 0
-0.14065883 -2.3913708 -0.95810258 0
-0.14177187 -2.3926828 -0.9546566 0
-0.14524831 -2.429656 -0.96957415 0
-0.14146654 -2.4090433 -0.96772802 0
-0.14184892 -2.3901024 -0.96108747 0
-0.14303078 -2.3925622 -0.95477152 0
-0.14162642 -2.4117661 -0.96089906 0
-0.14188983 -2.3907917 -0.95936561 0
-0.14415574 -2.4094412 -0.96633971 0
-0.14215487 -2.4207649 -0.96529233 0
-0.14351995 -2.4202206 -0.96645463 0
-0.14402917 -2.4092631 -0.96680254 0
-0.1409414 -2.4001005 -0.96319932 0
-0.1441918 -2.4295793 -0.96992421 0
-0.14173765 -2.3747535 -0.94554585 0
-0.14084797 -2.400476 -0.96227723 0
-0.14482036 -2.4362209 -0.98018116 0
-0.14355223 -2.4012849 -0.95985609 0
-0.14029951 -2.3930905 -0.9538523 0
-0.14354797 -2.418731 -0.97017258 0
-0.14248693 -2.3815484 -0.95541841 0
-0.14160211 -2.4113519 -0.9619413 0
-0.14254892 -2.4018974 -0.95847219 0
-0.1450402 -2.428129 -0.9734233 0
-0.14373824 -2.4199755 -0.96703571 0
-0.14562716 -2.4399204 -0.97081476 0
-0.14414124 -2.4566033 -0.9832719 0
-0.14395362 -2.4177272 -0.97261119 0
-0.14398542 -2.410471 -0.96379364 0
-0.14193362 -2.4209633 -0.96482736 0
-0.14422819 -2.4282241 -0.97330672 0
-0.14357923 -2.3998053 -0.96354502 0
-0.14352667 -2.4481361 -0.97756332 0
-0.1417854 -2.3929112 -0.95408213 0
-0.14340143 -2.4006941 -0.96135503 0
-0.14157386 -2.4088976 -0.96807504 0
-0.1432647 -2.4100509 -0.9649511 0
-0.14275199 -2.3936775 -0.95201337 0
-0.1421223 -2.4202101 -0.96668708 0
-0.14673112 -2.4643757 -0.99041528 0
-0.14241102 -2.3918188 -0.95672441 0
-0.14151351 -2.4118187 -0.96078324 0
-0.14261848 -2.3914387 -0.95764321 0
-0.14398132 -2.4181924 -0.97145009 0
-0.14131689 -2.4104438 -0.96425664 0
-0.1438175 -2.4115441 -0.96113068 0
-0.14451358 -2.4290941 -0.97109079 0
-0.14132932 -2.4086795 -0.96865338 0
-0.14447552 -2.4186757 -0.97017258 0
-0.14242846 -2.4294038 -0.97062421 0
-0.14333539 -2.3995886 -0.96412122 0
-0.14307536 -2.4010367 -0.96054798 0
-0.14139789 -2.4118254 -0.96078324 0
-0.14362502 -2.4102609 -0.9643724 0
-0.1425665 -2.3905671 -0.9598248 0
-0.14141618 -2.4101598 -0.9649511 0
-0.1442546 -2.420826 -0.96482736 0
-0.14477412 -2.4295447 -0.96992421 0
-0.14133203 -2.4087257 -0.96853775 0
-0.1440917 -2.4180925 -0.97168231 0
-0.14326708 -2.4023147 -0.95731866 0
-0.14135742 -2.4111352 -0.96252018 0
-0.14630562 -2.4552457 -0.9863382 0
-0.14329457 -2.4008391 -0.96100914 0
-0.14085138 -2.4025035 -0.95720333 0
-0.14395648 -2.4197302 -0.96761674 0
-0.1444561 -2.4183505 -0.97098553 0
-0.14194921 -2.4192443 -0.96912712 0
-0.14346795 -2.4115186 -0.96124649 0
-0.14578141 -2.4484251 -0.97650522 0
-0.14363191 -2.4459174 -0.98308599 0
-0.14308606 -2.3992791 -0.96492779 0
-0.14345153 -2.4112425 -0.9619413 0
-0.14257488 -2.4299076 -0.9693408 0
-0.14379917 -2.4190419 -0.96935946 0
-0.14247471 -2.4301927 -0.96864069 0
-0.14277956 -2.3922102 -0.95569062 0
-0.14443326 -2.4277442 -0.97447264 0
-0.14094681 -2.4001927 -0.96296883 0
-0.1441533 -2.4113393 -0.96159387 0
-0.14302464 -2.4118679 -0.96043581 0
-0.14136736 -2.4093277 -0.96703392 0
-0.14577706 -2.4365401 -0.97924519 0
-0.14266406 -2.4018905 -0.95847219 0
-0.14125533 -2.4113722 -0.9619413 0
-0.14379267 -2.4091842 -0.96703392 0
-0.14402004 -2.4188426 -0.96982408 0
-0.14246383 -2.4300072 -0.96910745 0
-0.14379279 -2.4111297 -0.96217287 0
-0.14468823 -2.4281032 -0.97353989 0
-0.14352018 -2.4460185 -0.98285109 0
-0.14211464 -2.3829904 -0.95187193 0
-0.14197549 -2.3845041 -0.94809443 0
-0.1418414 -2.4193902 -0.96877861 0
-0.14222582 -2.3810132 -0.95679063 0
-0.14312461 -2.4018631 -0.95847219 0
-0.14277917 -2.4393888 -0.97257209 0
-0.14289449 -2.3999388 -0.96331453 0
-0.14336292 -2.4000497 -0.96296883 0
-0.14565013 -2.4481983 -0.9770931 0
-0.14370751 -2.4096999 -0.96576118 0
-0.1424329 -2.4274879 -0.97540522 0
-0.14395924 -2.4197764 -0.96750051 0
-0.14320101 -2.4031451 -0.9552418 0
-0.14241211 -2.4291251 -0.97132409 0
-0.14641206 -2.45505 -0.98680979 0
-0.14542137 -2.4384379 -0.97456306 0
-0.1412742 -2.4116943 -0.96113068 0
-0.1446799 -2.4279635 -0.97388971 0
-0.1433464 -2.3997731 -0.9636603 0
-0.1398246 -2.3830345 -0.95210081 0
-0.14345701 -2.4113345 -0.96170968 0
-0.14483239 -2.4285619 -0.97237378 0
-0.1429683 -2.4366126 -0.97947919 0
-0.14349024 -2.4099445 -0.96518254 0
-0.1420871 -2.3844519 -0.94820893 0
-0.14068517 -2.4016387 -0.95939481 0
-0.14342415 -2.4088347 -0.9679594 0
-0.14387538 -2.4105701 -0.96356213 0
-0.14225528 -2.430438 -0.96805722 0
-0.14588805 -2.4561696 -0.9840976 0
-0.14290479 -2.3904548 -0.9600544 0
-0.14046453 -2.3919799 -0.95660955 0
-0.14432757 -2.4298971 -0.96910745 0
-0.14090076 -2.3994086 -0.96492779 0
-0.14510971 -2.4371438 -0.9778409 0
-0.1438449 -2.4120035 -0.9599725 0
-0.1435349 -2.4482763 -0.97721064 0
-0.14464656 -2.4274039 -0.97528869 0
-0.14386161 -2.4103394 -0.96414089 0
-0.14182837 -2.4211547 -0.96436232 0
-0.14217082 -2.3916492 -0.95718384 0
-0.14445333 -2.4183042 -0.9711017 0
-0.14088038 -2.4010282 -0.96089387 0
-0.14279827 -2.4022045 -0.95766473 0
-0.14278229 -2.3922558 -0.95557576 0
-0.14133203 -2.4087257 -0.96853775 0
-0.14221451 -2.3904498 -0.9601692 0
-0.14271665 -2.393085 -0.95350754 0
-0.14148922 -2.4114046 -0.96182549 0
-0.14520702 -2.4368093 -0.97866011 0
-0.14383957 -2.4099703 -0.96506679 0
-0.14248557 -2.430378 -0.96817392 0
-0.14395097 -2.4196377 -0.96784914 0
-0.14279294 -2.3905075 -0.9599396 0
-0.14097385 -2.4006534 -0.96181613 0
-0.14456604 -2.429976 -0.9688741 0
-0.14269488 -2.3927197 -0.95442683 0
-0.14134835 -2.4090037 -0.96784371 0
-0.14434861 -2.4204497 -0.96575731 0
-0.14192279 -2.4207785 -0.96529233 0
-0.14411108 -2.4184177 -0.97086942 0
-0.14449492 -2.4190006 -0.96935946 0
-0.14138712 -2.4116416 -0.96124649 0
-0.14452739 -2.4293265 -0.9705075 0
-0.14656073 -2.4555619 -0.98551279 0
-0.14149643 -2.4095523 -0.9664554 0
-0.14356712 -2.4112356 -0.9619413 0
-0.14316285 -2.4025047 -0.9568572 0
-0.14191653 -2.4186873 -0.97052097 0
-0.14430687 -2.4177995 -0.97237897 0
-0.14355615 -2.4110515 -0.96240443 0
-0.14180945 -2.4208314 -0.96517611 0
-0.1441194 -2.4185572 -0.97052097 0
-0.14447552 -2.4186757 -0.97017258 0
-0.1425776 -2.4299541 -0.96922415 0
-0.14222793 -2.3926101 -0.95477152 0
-0.14247651 -2.3909872 -0.95879149 0
-0.1421293 -2.4183486 -0.97133392 0
-0.14542693 -2.4385312 -0.97432888 0
-0.14339606 -2.4122608 -0.95939332 0
-0.14250126 -2.428653 -0.97249043 0
-0.14387496 -2.4086218 -0.96842206 0
-0.14298488 -2.4014571 -0.95951015 0
-0.14368822 -2.4093761 -0.96657115 0
-0.14521539 -2.4369497 -0.97830904 0
-0.14135203 -2.4110432 -0.96275175 0
-0.14480177 -2.4300086 -0.96875739 0
-0.14582068 -2.4471076 -0.97979647 0
-0.14296004 -2.4364719 -0.97983015 0
-0.14317401 -2.400754 -0.96123976 0
-0.1419701 -2.3844135 -0.94832343 0
-0.1422984 -2.4291782 -0.97120744 0
-0.14432353 -2.4180787 -0.97168231 0
-0.14333297 -2.4014823 -0.95939481 0
-0.14170422 -2.4210231 -0.96471107 0
-0.14379641 -2.4189956 -0.96947563 0
-0.14335467 -2.3999114 -0.96331453 0
-0.14090733 -2.4014876 -0.95974082 0
-0.14444129 -2.4298439 -0.96922415 0
-0.14550205 -2.4378242 -0.97608513 0
-0.1414475 -2.4087191 -0.96853775 0
-0.14502071 -2.4376185 -0.97667044 0
-0.14429307 -2.4214718 -0.96319962 0
-0.14123915 -2.4110959 -0.96263599 0
-0.14464934 -2.4274504 -0.9751721 0
-0.14465521 -2.419735 -0.96750051 0
-0.14074157 -2.4026017 -0.9569726 0
-0.14346229 -2.4192481 -0.96889478 0
-0.14155069 -2.4104762 -0.96414089 0
-0.14322856 -2.4113944 -0.96159387 0
-0.14319868 -2.4011676 -0.96020204 0
-0.14307959 -2.436512 -0.97971314 0
-0.14302053 -2.4001162 -0.96285355 0
-0.14293796 -2.4026101 -0.95662647 0
-0.14268591 -2.4298079 -0.96957415 0
-0.14223401 -2.3811505 -0.9564476 0
-0.14503738 -2.4378989 -0.97596806 0
-0.14073621 -2.4025102 -0.95720333 0
-0.14441769 -2.4196563 -0.96773291 0
-0.14288351 -2.3997543 -0.96377552 0
-0.14030954 -2.3912992 -0.95833224 0
-0.14559387 -2.4393625 -0.97222066 0
-0.14444681 -2.4299366 -0.96899074 0
-0.14068425 -2.399653 -0.96435171 0
-0.1437678 -2.4087677 -0.96807504 0
-0.14479624 -2.4299159 -0.96899074 0
-0.14232561 -2.4296429 -0.97004086 0
-0.14465211 -2.4274971 -0.97505552 0
-0.14494325 -2.4284618 -0.97260702 0
-0.14247742 -2.430239 -0.96852398 0
-0.14230998 -2.3920546 -0.95615011 0
